167000.000 638732.000 12.30
167000.000 638728.000 12.10
167000.000 638724.000 12.00
166996.000 638712.000 12.30
166996.000 638708.000 12.20
166996.000 638704.000 12.00
166996.000 638700.000 11.90
166992.000 638692.000 12.40
166992.000 638688.000 12.20
166992.000 638684.000 12.10
166992.000 638680.000 11.90
166988.000 638668.000 12.30
166988.000 638664.000 12.10
166988.000 638660.000 12.00
166980.000 638652.000 12.30
166984.000 638652.000 12.30
166976.000 638652.000 12.30
166972.000 638652.000 12.30
166968.000 638652.000 12.30
166960.000 638652.000 12.30
166952.000 638652.000 12.30
166944.000 638652.000 12.30
166940.000 638652.000 12.30
166956.000 638652.000 12.30
166964.000 638652.000 12.30
166948.000 638652.000 12.30
166932.000 638652.000 12.30
166924.000 638652.000 12.30
166920.000 638652.000 12.30
166936.000 638652.000 12.30
166928.000 638652.000 12.30
166916.000 638652.000 12.30
166912.000 638652.000 12.30
166900.000 638652.000 12.30
166908.000 638652.000 12.30
166896.000 638652.000 12.30
166904.000 638652.000 12.30
166884.000 638652.000 12.30
166880.000 638652.000 12.30
166876.000 638652.000 12.30
166892.000 638652.000 12.30
166888.000 638652.000 12.30
166872.000 638652.000 12.30
166864.000 638652.000 12.30
166860.000 638652.000 12.30
166868.000 638652.000 12.30
166848.000 638652.000 12.30
166852.000 638652.000 12.30
166856.000 638652.000 12.30
166844.000 638652.000 12.30
166840.000 638652.000 12.30
166832.000 638652.000 12.30
166820.000 638652.000 12.30
166836.000 638652.000 12.30
166824.000 638652.000 12.30
166828.000 638652.000 12.30
166812.000 638652.000 12.30
166804.000 638652.000 12.30
166800.000 638652.000 12.30
166816.000 638652.000 12.30
166808.000 638652.000 12.30
166796.000 638652.000 12.30
166792.000 638652.000 12.30
166788.000 638648.000 11.50
166780.000 638648.000 11.50
166784.000 638648.000 11.50
166776.000 638648.000 11.50
166772.000 638648.000 11.50
166768.000 638648.000 11.50
166720.000 638648.000 11.50
166748.000 638648.000 11.50
166764.000 638648.000 11.50
166756.000 638648.000 11.50
166760.000 638648.000 11.50
166752.000 638648.000 11.50
166736.000 638648.000 11.50
166740.000 638648.000 11.50
166744.000 638648.000 11.50
166728.000 638648.000 11.50
166732.000 638648.000 11.50
166724.000 638648.000 11.50
166716.000 638648.000 11.50
166688.000 638648.000 11.50
166704.000 638648.000 11.50
166708.000 638648.000 11.50
166712.000 638648.000 11.50
166696.000 638648.000 11.50
166700.000 638648.000 11.50
166692.000 638648.000 11.50
166660.000 638648.000 11.50
166676.000 638648.000 11.50
166680.000 638648.000 11.50
166684.000 638648.000 11.50
166668.000 638648.000 11.50
166672.000 638648.000 11.50
166664.000 638648.000 11.50
166656.000 638648.000 11.50
166640.000 638648.000 11.50
166644.000 638648.000 11.50
166652.000 638648.000 11.50
166648.000 638648.000 11.50
166632.000 638648.000 11.50
166636.000 638648.000 11.50
166628.000 638648.000 11.50
166624.000 638648.000 11.50
166616.000 638648.000 11.50
166620.000 638648.000 11.50
166612.000 638648.000 11.50
166608.000 638648.000 11.50
166604.000 638648.000 11.50
166600.000 638648.000 11.50
166584.000 638648.000 11.50
166592.000 638648.000 11.50
166596.000 638648.000 11.50
166588.000 638648.000 11.50
166560.000 638648.000 11.50
166580.000 638648.000 11.50
166576.000 638648.000 11.50
166568.000 638648.000 11.50
166572.000 638648.000 11.50
166564.000 638648.000 11.50
166544.000 638648.000 11.50
166552.000 638648.000 11.50
166556.000 638648.000 11.50
166548.000 638648.000 11.50
166536.000 638648.000 11.50
166540.000 638648.000 11.50
166532.000 638648.000 11.50
166528.000 638648.000 11.50
166524.000 638648.000 11.50
166520.000 638648.000 11.50
166516.000 638648.000 11.50
166508.000 638648.000 11.50
166512.000 638648.000 11.50
166500.000 638648.000 11.50
166504.000 638648.000 11.50
166496.000 638648.000 11.50
166492.000 638648.000 11.50
166488.000 638648.000 11.50
166484.000 638648.000 11.50
166480.000 638648.000 11.50
166476.000 638648.000 11.50
166472.000 638648.000 11.50
166468.000 638648.000 11.50
166464.000 638648.000 11.50
166460.000 638648.000 11.50
166460.000 638620.000 11.40
166460.000 638616.000 11.40
166460.000 638608.000 11.60
166460.000 638612.000 11.50
166460.000 638604.000 11.70
166460.000 638600.000 11.70
166464.000 638596.000 11.40
166460.000 638596.000 11.80
166460.000 638592.000 11.90
166464.000 638592.000 11.50
166468.000 638576.000 11.40
166468.000 638572.000 11.40
166468.000 638568.000 11.50
166464.000 638580.000 11.70
166464.000 638588.000 11.50
166464.000 638584.000 11.60
166464.000 638576.000 11.80
166464.000 638572.000 11.80
166468.000 638564.000 11.60
166468.000 638560.000 11.60
166468.000 638556.000 11.40
166464.000 638556.000 11.70
166460.000 638552.000 11.80
166464.000 638552.000 11.50
166460.000 638548.000 11.60
166460.000 638544.000 11.40
166456.000 638640.000 11.40
166456.000 638648.000 11.50
166456.000 638644.000 11.40
166452.000 638648.000 11.70
166456.000 638616.000 11.80
166456.000 638628.000 11.60
166452.000 638644.000 11.70
166456.000 638636.000 11.50
166452.000 638640.000 11.80
166456.000 638632.000 11.60
166456.000 638624.000 11.70
166456.000 638620.000 11.80
166456.000 638544.000 11.70
166452.000 638540.000 11.80
166456.000 638540.000 11.40
166452.000 638536.000 11.50
166448.000 638536.000 11.90
166448.000 638532.000 11.60
166448.000 638528.000 11.40
166444.000 638528.000 11.70
166444.000 638524.000 11.50
166440.000 638524.000 11.80
166440.000 638520.000 11.60
166436.000 638520.000 11.90
166436.000 638516.000 11.60
166436.000 638512.000 11.40
166432.000 638508.000 11.50
166432.000 638512.000 11.70
166428.000 638508.000 11.80
166428.000 638504.000 11.60
166424.000 638500.000 11.70
166424.000 638496.000 11.40
166420.000 638496.000 11.80
166420.000 638492.000 11.50
166416.000 638492.000 11.80
166416.000 638488.000 11.60
166416.000 638484.000 11.40
166412.000 638480.000 11.50
166412.000 638484.000 11.70
166408.000 638480.000 11.80
166408.000 638476.000 11.50
166404.000 638476.000 11.90
165864.000 638136.000 11.60
165864.000 638132.000 11.80
165860.000 638128.000 11.50
165860.000 638124.000 11.70
165860.000 638132.000 11.40
165860.000 638120.000 11.80
165856.000 638120.000 11.40
165856.000 638116.000 11.60
165856.000 638108.000 11.90
165856.000 638112.000 11.70
165852.000 638108.000 11.50
165852.000 638100.000 11.80
165852.000 638104.000 11.60
165848.000 638092.000 11.70
165848.000 638088.000 11.80
165848.000 638096.000 11.50
165848.000 638100.000 11.40
165844.000 638088.000 11.40
165844.000 638084.000 11.60
165844.000 638080.000 11.70
165844.000 638076.000 11.90
165840.000 638076.000 11.50
165840.000 638072.000 11.60
165840.000 638068.000 11.80
165828.000 638036.000 11.80
165824.000 638028.000 11.70
165824.000 638024.000 11.80
165832.000 638044.000 11.90
165824.000 638032.000 11.50
165820.000 638024.000 11.40
165820.000 638012.000 11.90
165820.000 638020.000 11.60
165820.000 638016.000 11.70
165816.000 638012.000 11.50
165816.000 638008.000 11.60
165816.000 638004.000 11.80
165812.000 638004.000 11.40
165812.000 638000.000 11.50
165812.000 637996.000 11.70
165812.000 637992.000 11.80
165772.000 637896.000 11.40
165772.000 637888.000 11.70
165772.000 637892.000 11.60
165772.000 637884.000 11.90
165768.000 637884.000 11.50
165768.000 637880.000 11.60
165768.000 637876.000 11.80
165764.000 637876.000 11.40
165764.000 637868.000 11.70
165764.000 637872.000 11.50
165764.000 637864.000 11.80
165784.000 637924.000 11.60
165784.000 637928.000 11.40
165784.000 637920.000 11.70
165784.000 637916.000 11.90
165780.000 637916.000 11.50
165780.000 637908.000 11.80
165780.000 637912.000 11.60
165776.000 637908.000 11.40
165776.000 637904.000 11.50
165776.000 637900.000 11.70
165776.000 637896.000 11.80
165760.000 637864.000 11.40
165760.000 637860.000 11.60
165760.000 637852.000 11.90
165760.000 637856.000 11.70
165756.000 637852.000 11.50
165756.000 637848.000 11.60
165756.000 637844.000 11.80
165752.000 637840.000 11.50
165752.000 637836.000 11.70
165752.000 637832.000 11.80
165752.000 637844.000 11.40
165748.000 637828.000 11.60
165748.000 637832.000 11.40
165792.000 637944.000 11.60
165788.000 637940.000 11.40
165788.000 637936.000 11.50
165788.000 637932.000 11.70
165788.000 637928.000 11.80
165796.000 637956.000 11.60
165796.000 637960.000 11.40
165796.000 637952.000 11.70
165796.000 637948.000 11.90
165792.000 637940.000 11.80
165792.000 637948.000 11.50
165804.000 637976.000 11.60
165804.000 637972.000 11.80
165800.000 637972.000 11.40
165800.000 637968.000 11.50
165800.000 637960.000 11.80
165800.000 637964.000 11.70
165808.000 637988.000 11.60
165808.000 637992.000 11.40
165808.000 637980.000 11.90
165808.000 637984.000 11.70
165804.000 637980.000 11.50
165748.000 637824.000 11.70
165748.000 637820.000 11.90
165744.000 637820.000 11.50
165744.000 637816.000 11.60
165744.000 637812.000 11.80
165740.000 637812.000 11.40
165740.000 637808.000 11.50
165740.000 637804.000 11.70
165740.000 637800.000 11.80
165736.000 637800.000 11.40
165736.000 637796.000 11.60
165736.000 637792.000 11.70
165736.000 637788.000 11.90
165732.000 637788.000 11.50
165732.000 637780.000 11.80
165732.000 637784.000 11.60
165728.000 637780.000 11.40
165728.000 637776.000 11.50
165728.000 637772.000 11.70
165720.000 637748.000 11.80
165720.000 637756.000 11.50
165720.000 637752.000 11.60
165716.000 637748.000 11.40
165716.000 637744.000 11.50
165716.000 637740.000 11.70
165716.000 637736.000 11.80
165712.000 637736.000 11.40
165712.000 637732.000 11.60
165712.000 637728.000 11.70
165712.000 637724.000 11.90
165708.000 637724.000 11.50
165728.000 637768.000 11.80
165724.000 637768.000 11.40
165724.000 637764.000 11.60
165724.000 637760.000 11.70
165724.000 637756.000 11.90
165704.000 637708.000 11.70
165704.000 637704.000 11.80
165700.000 637704.000 11.40
165700.000 637700.000 11.60
165700.000 637696.000 11.70
165700.000 637692.000 11.90
165696.000 637696.000 11.40
165696.000 637692.000 11.50
165696.000 637688.000 11.60
165696.000 637684.000 11.80
165708.000 637720.000 11.60
165708.000 637716.000 11.80
165704.000 637716.000 11.40
165704.000 637712.000 11.50
167056.000 639016.000 11.70
167056.000 639012.000 11.50
167056.000 639008.000 11.40
167052.000 639000.000 11.90
167052.000 638996.000 11.70
167052.000 638992.000 11.60
167052.000 638988.000 11.40
167048.000 638976.000 11.80
167048.000 638972.000 11.60
167048.000 638968.000 11.50
167044.000 638956.000 11.80
167044.000 638952.000 11.70
167044.000 638948.000 11.50
167044.000 638944.000 11.40
167040.000 638936.000 11.90
167040.000 638932.000 11.70
167040.000 638928.000 11.60
167040.000 638924.000 11.40
167036.000 638912.000 11.80
167036.000 638908.000 11.60
167036.000 638904.000 11.50
167032.000 638892.000 11.80
167032.000 638888.000 11.70
167032.000 638884.000 11.50
167032.000 638880.000 11.40
167028.000 638868.000 11.70
167028.000 638864.000 11.60
167028.000 638860.000 11.40
167024.000 638848.000 11.80
167024.000 638844.000 11.70
167024.000 638840.000 11.50
167024.000 638836.000 11.40
167020.000 638828.000 11.90
167020.000 638824.000 11.70
167020.000 638820.000 11.60
167020.000 638816.000 11.40
167016.000 638804.000 11.80
167016.000 638800.000 11.60
167016.000 638796.000 11.50
167012.000 638784.000 11.80
167012.000 638780.000 11.70
167012.000 638776.000 11.50
167012.000 638772.000 11.40
167008.000 638764.000 11.90
167008.000 638760.000 11.70
167008.000 638756.000 11.60
167008.000 638752.000 11.40
167004.000 638740.000 11.80
167004.000 638736.000 11.60
167004.000 638732.000 11.50
167000.000 638720.000 11.80
167000.000 638716.000 11.70
167000.000 638712.000 11.50
167000.000 638708.000 11.40
166996.000 638696.000 11.70
166996.000 638692.000 11.60
166996.000 638688.000 11.50
166992.000 638676.000 11.80
166992.000 638672.000 11.70
166992.000 638668.000 11.50
166992.000 638664.000 11.40
166988.000 638656.000 11.90
166988.000 638652.000 11.70
166972.000 638648.000 11.50
166988.000 638648.000 11.50
166980.000 638648.000 11.50
166984.000 638648.000 11.50
166976.000 638648.000 11.50
166940.000 638648.000 11.50
166956.000 638648.000 11.50
166960.000 638648.000 11.50
166968.000 638648.000 11.50
166964.000 638648.000 11.50
166948.000 638648.000 11.50
166952.000 638648.000 11.50
166944.000 638648.000 11.50
166912.000 638648.000 11.50
166928.000 638648.000 11.50
166932.000 638648.000 11.50
166936.000 638648.000 11.50
166920.000 638648.000 11.50
166924.000 638648.000 11.50
166916.000 638648.000 11.50
166908.000 638648.000 11.50
166852.000 638648.000 11.50
166880.000 638648.000 11.50
166896.000 638648.000 11.50
166904.000 638648.000 11.50
166900.000 638648.000 11.50
166888.000 638648.000 11.50
166892.000 638648.000 11.50
166884.000 638648.000 11.50
166868.000 638648.000 11.50
166872.000 638648.000 11.50
166876.000 638648.000 11.50
166860.000 638648.000 11.50
166864.000 638648.000 11.50
166856.000 638648.000 11.50
166848.000 638648.000 11.50
166820.000 638648.000 11.50
166836.000 638648.000 11.50
166840.000 638648.000 11.50
166844.000 638648.000 11.50
166828.000 638648.000 11.50
166832.000 638648.000 11.50
166824.000 638648.000 11.50
166792.000 638648.000 11.50
166808.000 638648.000 11.50
166812.000 638648.000 11.50
166816.000 638648.000 11.50
166800.000 638648.000 11.50
166804.000 638648.000 11.50
166796.000 638648.000 11.50
166460.000 638644.000 11.00
166460.000 638636.000 11.10
166460.000 638640.000 11.00
166460.000 638632.000 11.20
166464.000 638628.000 10.80
166464.000 638624.000 10.90
166460.000 638628.000 11.20
166464.000 638620.000 11.00
166460.000 638624.000 11.30
166464.000 638616.000 11.10
166468.000 638604.000 10.90
166468.000 638600.000 10.90
166468.000 638596.000 11.00
166464.000 638608.000 11.20
166464.000 638612.000 11.10
166464.000 638604.000 11.30
166464.000 638600.000 11.30
166472.000 638580.000 10.90
166476.000 638560.000 10.80
166472.000 638576.000 11.00
166468.000 638592.000 11.10
166472.000 638584.000 10.80
166468.000 638588.000 11.10
166468.000 638584.000 11.20
166468.000 638580.000 11.30
166472.000 638572.000 11.00
166472.000 638568.000 11.10
166472.000 638564.000 11.20
166472.000 638560.000 11.20
166472.000 638556.000 11.10
166472.000 638552.000 10.90
166468.000 638552.000 11.20
166468.000 638548.000 10.90
166464.000 638548.000 11.30
166464.000 638544.000 11.00
166460.000 638540.000 11.10
166460.000 638536.000 10.90
166456.000 638536.000 11.20
166456.000 638532.000 11.00
166452.000 638532.000 11.30
166452.000 638528.000 11.10
166452.000 638524.000 10.80
166448.000 638524.000 11.10
166448.000 638520.000 10.90
166444.000 638520.000 11.20
166444.000 638516.000 11.00
166440.000 638508.000 10.80
166440.000 638516.000 11.30
166440.000 638512.000 11.10
166436.000 638508.000 11.20
166436.000 638504.000 10.90
166432.000 638500.000 11.00
166432.000 638504.000 11.30
166428.000 638496.000 11.10
166428.000 638500.000 11.30
166424.000 638492.000 11.20
166428.000 638492.000 10.90
166424.000 638488.000 11.00
166420.000 638488.000 11.30
166420.000 638484.000 11.00
166416.000 638480.000 11.10
166416.000 638476.000 10.90
166412.000 638476.000 11.20
166412.000 638472.000 11.00
166408.000 638472.000 11.30
165860.000 638136.000 11.30
165856.000 638136.000 10.90
165856.000 638132.000 11.00
165856.000 638128.000 11.20
165856.000 638124.000 11.30
165852.000 638120.000 11.10
165852.000 638124.000 10.90
165852.000 638116.000 11.20
165852.000 638112.000 11.30
165848.000 638104.000 11.30
165848.000 638112.000 11.00
165848.000 638116.000 10.80
165848.000 638108.000 11.10
165844.000 638104.000 10.90
165844.000 638100.000 11.00
165844.000 638092.000 11.30
165844.000 638096.000 11.20
165840.000 638092.000 10.90
165840.000 638088.000 11.10
165840.000 638084.000 11.20
165840.000 638080.000 11.30
165820.000 638028.000 11.30
165816.000 638024.000 11.10
165816.000 638020.000 11.20
165812.000 638020.000 10.80
165812.000 638016.000 11.00
165816.000 638016.000 11.30
165812.000 638008.000 11.30
165812.000 638012.000 11.10
165772.000 637912.000 10.90
165772.000 637904.000 11.20
165772.000 637908.000 11.00
165768.000 637888.000 11.30
165768.000 637896.000 11.10
165768.000 637900.000 10.90
165768.000 637892.000 11.20
165764.000 637892.000 10.80
165764.000 637888.000 11.00
165764.000 637884.000 11.10
165764.000 637880.000 11.30
165760.000 637880.000 10.90
165760.000 637876.000 11.00
165760.000 637872.000 11.20
165756.000 637868.000 10.90
165760.000 637868.000 11.30
165784.000 637936.000 11.20
165784.000 637940.000 11.00
165784.000 637932.000 11.30
165780.000 637932.000 10.90
165780.000 637928.000 11.10
165780.000 637924.000 11.20
165776.000 637924.000 10.80
165780.000 637920.000 11.30
165776.000 637920.000 11.00
165776.000 637916.000 11.10
165776.000 637912.000 11.30
165772.000 637900.000 11.30
165756.000 637864.000 11.10
165756.000 637860.000 11.20
165756.000 637856.000 11.30
165752.000 637860.000 10.80
165752.000 637856.000 11.00
165752.000 637852.000 11.10
165752.000 637848.000 11.30
165748.000 637844.000 11.00
165748.000 637848.000 10.90
165748.000 637840.000 11.20
165748.000 637836.000 11.30
165792.000 637952.000 11.30
165792.000 637964.000 10.90
165788.000 637956.000 10.80
165788.000 637948.000 11.10
165788.000 637952.000 11.00
165788.000 637944.000 11.30
165784.000 637944.000 10.90
165796.000 637964.000 11.30
165796.000 637968.000 11.20
165792.000 637960.000 11.10
165792.000 637956.000 11.20
165800.000 637980.000 11.10
165800.000 637984.000 11.00
165796.000 637976.000 10.90
165800.000 637976.000 11.30
165796.000 637972.000 11.00
165808.000 638004.000 11.00
165808.000 638008.000 10.90
165808.000 637996.000 11.30
165808.000 638000.000 11.20
165804.000 637988.000 11.20
165804.000 637996.000 10.90
165804.000 637992.000 11.10
165804.000 637984.000 11.30
165800.000 637988.000 10.80
165744.000 637836.000 10.90
165744.000 637832.000 11.10
165744.000 637828.000 11.20
165744.000 637824.000 11.30
165740.000 637828.000 10.80
165740.000 637824.000 11.00
165740.000 637820.000 11.10
165740.000 637816.000 11.30
165736.000 637816.000 10.90
165736.000 637812.000 11.00
165736.000 637808.000 11.20
165732.000 637804.000 10.90
165736.000 637804.000 11.30
165732.000 637800.000 11.10
165732.000 637796.000 11.20
165732.000 637792.000 11.30
165728.000 637796.000 10.80
165728.000 637792.000 11.00
165728.000 637788.000 11.10
165728.000 637784.000 11.30
165724.000 637784.000 10.90
165724.000 637780.000 11.00
165724.000 637776.000 11.20
165724.000 637772.000 11.30
165720.000 637772.000 10.90
165720.000 637760.000 11.30
165716.000 637764.000 10.80
165716.000 637760.000 11.00
165716.000 637756.000 11.10
165716.000 637752.000 11.30
165712.000 637740.000 11.30
165712.000 637748.000 11.00
165712.000 637752.000 10.90
165712.000 637744.000 11.20
165708.000 637740.000 10.90
165708.000 637736.000 11.10
165708.000 637732.000 11.20
165708.000 637728.000 11.30
165704.000 637732.000 10.80
165704.000 637728.000 11.00
165704.000 637724.000 11.10
165720.000 637768.000 11.10
165720.000 637764.000 11.20
165700.000 637708.000 11.30
165696.000 637708.000 10.90
165696.000 637704.000 11.10
165696.000 637700.000 11.20
165700.000 637720.000 10.90
165704.000 637720.000 11.30
165700.000 637716.000 11.00
165700.000 637712.000 11.20
167060.000 639016.000 10.90
167056.000 639004.000 11.20
167056.000 639000.000 11.10
167056.000 638996.000 10.90
167052.000 638984.000 11.30
167052.000 638980.000 11.10
167052.000 638976.000 11.00
167052.000 638972.000 10.80
167048.000 638964.000 11.30
167048.000 638960.000 11.20
167048.000 638956.000 11.00
167048.000 638952.000 10.90
167044.000 638940.000 11.20
167044.000 638936.000 11.10
167044.000 638932.000 10.90
167040.000 638920.000 11.30
167040.000 638916.000 11.10
167040.000 638912.000 11.00
167040.000 638908.000 10.80
167036.000 638900.000 11.30
167036.000 638896.000 11.20
167036.000 638892.000 11.00
167036.000 638888.000 10.90
167032.000 638876.000 11.30
167032.000 638872.000 11.10
167032.000 638868.000 11.00
167028.000 638856.000 11.30
167028.000 638852.000 11.20
167028.000 638848.000 11.00
167028.000 638844.000 10.90
167024.000 638832.000 11.20
167024.000 638828.000 11.10
167024.000 638824.000 10.90
167020.000 638812.000 11.30
167020.000 638808.000 11.10
167020.000 638804.000 11.00
167020.000 638800.000 10.80
167016.000 638792.000 11.30
167016.000 638788.000 11.20
167016.000 638784.000 11.00
167016.000 638780.000 10.90
167012.000 638768.000 11.20
167012.000 638760.000 10.90
167012.000 638764.000 11.10
167008.000 638748.000 11.30
167008.000 638744.000 11.10
167008.000 638740.000 11.00
167008.000 638736.000 10.80
167004.000 638728.000 11.30
167004.000 638724.000 11.20
167004.000 638720.000 11.00
167004.000 638716.000 10.90
167000.000 638704.000 11.30
167000.000 638700.000 11.10
167000.000 638696.000 11.00
166996.000 638684.000 11.30
166996.000 638680.000 11.20
166996.000 638676.000 11.00
166996.000 638672.000 10.90
166992.000 638660.000 11.20
166992.000 638656.000 11.10
166992.000 638652.000 10.90
166788.000 638644.000 10.70
166772.000 638644.000 10.70
166780.000 638644.000 10.70
166784.000 638644.000 10.70
166776.000 638644.000 10.70
166768.000 638644.000 10.70
166764.000 638644.000 10.70
166756.000 638644.000 10.70
166760.000 638644.000 10.70
166752.000 638644.000 10.70
166748.000 638644.000 10.70
166720.000 638644.000 10.70
166732.000 638644.000 10.70
166740.000 638644.000 10.70
166744.000 638644.000 10.70
166736.000 638644.000 10.70
166728.000 638644.000 10.70
166724.000 638644.000 10.70
166716.000 638644.000 10.70
166704.000 638644.000 10.70
166712.000 638644.000 10.70
166708.000 638644.000 10.70
166696.000 638644.000 10.70
166700.000 638644.000 10.70
166692.000 638644.000 10.70
166688.000 638644.000 10.70
166672.000 638644.000 10.70
166680.000 638644.000 10.70
166684.000 638644.000 10.70
166676.000 638644.000 10.70
166668.000 638644.000 10.70
166664.000 638644.000 10.70
166660.000 638644.000 10.70
166656.000 638644.000 10.70
166644.000 638644.000 10.70
166652.000 638644.000 10.70
166648.000 638644.000 10.70
166636.000 638644.000 10.70
166640.000 638644.000 10.70
166632.000 638644.000 10.70
166628.000 638644.000 10.70
166604.000 638644.000 10.70
166616.000 638644.000 10.70
166624.000 638644.000 10.70
166620.000 638644.000 10.70
166612.000 638644.000 10.70
166608.000 638644.000 10.70
166600.000 638644.000 10.70
166572.000 638644.000 10.70
166592.000 638644.000 10.70
166596.000 638644.000 10.70
166584.000 638644.000 10.70
166588.000 638644.000 10.70
166576.000 638644.000 10.70
166580.000 638644.000 10.70
166552.000 638644.000 10.70
166564.000 638644.000 10.70
166568.000 638644.000 10.70
166556.000 638644.000 10.70
166560.000 638644.000 10.70
166540.000 638644.000 10.70
166544.000 638644.000 10.70
166548.000 638644.000 10.70
166532.000 638644.000 10.70
166536.000 638644.000 10.70
166528.000 638644.000 10.70
166524.000 638644.000 10.70
166516.000 638644.000 10.70
166520.000 638644.000 10.70
166512.000 638644.000 10.70
166508.000 638644.000 10.70
166504.000 638644.000 10.70
166500.000 638644.000 10.70
166496.000 638644.000 10.70
166492.000 638644.000 10.70
166476.000 638644.000 10.70
166480.000 638644.000 10.70
166488.000 638644.000 10.70
166484.000 638644.000 10.70
166472.000 638644.000 10.70
166468.000 638644.000 10.70
166468.000 638636.000 10.30
166464.000 638644.000 10.70
166468.000 638632.000 10.40
166468.000 638628.000 10.50
166468.000 638624.000 10.50
166468.000 638620.000 10.60
166464.000 638640.000 10.60
166464.000 638636.000 10.70
166464.000 638632.000 10.80
166472.000 638612.000 10.30
166468.000 638616.000 10.70
166468.000 638612.000 10.70
166472.000 638608.000 10.40
166468.000 638608.000 10.80
166472.000 638604.000 10.50
166472.000 638600.000 10.50
166472.000 638596.000 10.60
166472.000 638592.000 10.70
166476.000 638592.000 10.30
166476.000 638588.000 10.40
166476.000 638584.000 10.40
166476.000 638580.000 10.50
166476.000 638576.000 10.60
166476.000 638572.000 10.60
166480.000 638568.000 10.30
166480.000 638564.000 10.40
166480.000 638556.000 10.40
166480.000 638560.000 10.50
166476.000 638568.000 10.70
166472.000 638588.000 10.80
166476.000 638564.000 10.80
166476.000 638548.000 10.30
166476.000 638556.000 10.80
166476.000 638552.000 10.50
166472.000 638548.000 10.60
166472.000 638544.000 10.40
166468.000 638544.000 10.70
166468.000 638540.000 10.50
166464.000 638540.000 10.80
166464.000 638536.000 10.60
166464.000 638532.000 10.30
166460.000 638528.000 10.40
166460.000 638532.000 10.60
166456.000 638528.000 10.70
166456.000 638524.000 10.50
166452.000 638520.000 10.60
166448.000 638516.000 10.70
166452.000 638516.000 10.30
166448.000 638512.000 10.40
166444.000 638508.000 10.50
166444.000 638512.000 10.80
166440.000 638504.000 10.60
166440.000 638500.000 10.40
166436.000 638500.000 10.70
166436.000 638496.000 10.50
166432.000 638496.000 10.80
166432.000 638492.000 10.60
166432.000 638488.000 10.30
166428.000 638488.000 10.60
166428.000 638484.000 10.40
166424.000 638484.000 10.70
166424.000 638480.000 10.50
166420.000 638480.000 10.80
166420.000 638476.000 10.60
166420.000 638472.000 10.30
166416.000 638472.000 10.70
165852.000 638136.000 10.50
165852.000 638132.000 10.60
165852.000 638128.000 10.80
165848.000 638124.000 10.50
165848.000 638128.000 10.40
165848.000 638120.000 10.70
165840.000 638104.000 10.50
165840.000 638100.000 10.60
165840.000 638096.000 10.80
165844.000 638112.000 10.60
165844.000 638120.000 10.30
165844.000 638116.000 10.50
165844.000 638108.000 10.70
165840.000 638108.000 10.40
165808.000 638016.000 10.60
165808.000 638012.000 10.70
165768.000 637916.000 10.40
165768.000 637912.000 10.50
165768.000 637908.000 10.60
165768.000 637904.000 10.80
165764.000 637904.000 10.40
165764.000 637896.000 10.70
165764.000 637900.000 10.50
165760.000 637896.000 10.30
165760.000 637892.000 10.50
165760.000 637888.000 10.60
165760.000 637884.000 10.70
165756.000 637884.000 10.40
165756.000 637880.000 10.50
165756.000 637876.000 10.60
165756.000 637872.000 10.80
165752.000 637872.000 10.40
165752.000 637868.000 10.50
165780.000 637948.000 10.40
165780.000 637944.000 10.50
165780.000 637940.000 10.60
165780.000 637936.000 10.80
165776.000 637936.000 10.40
165776.000 637932.000 10.50
165776.000 637928.000 10.70
165772.000 637928.000 10.30
165772.000 637924.000 10.50
165772.000 637920.000 10.60
165772.000 637916.000 10.70
165748.000 637864.000 10.30
165752.000 637864.000 10.70
165748.000 637860.000 10.50
165748.000 637856.000 10.60
165748.000 637852.000 10.70
165744.000 637852.000 10.40
165792.000 637972.000 10.60
165788.000 637964.000 10.50
165788.000 637968.000 10.40
165788.000 637960.000 10.70
165784.000 637960.000 10.30
165784.000 637956.000 10.50
165784.000 637952.000 10.60
165784.000 637948.000 10.70
165792.000 637976.000 10.50
165792.000 637968.000 10.80
165800.000 637996.000 10.50
165800.000 637992.000 10.70
165796.000 637992.000 10.30
165796.000 637984.000 10.60
165796.000 637988.000 10.50
165796.000 637980.000 10.70
165792.000 637980.000 10.40
165804.000 638012.000 10.40
165804.000 638008.000 10.50
165804.000 638000.000 10.80
165804.000 638004.000 10.60
165800.000 638000.000 10.40
165744.000 637840.000 10.80
165744.000 637848.000 10.50
165744.000 637844.000 10.60
165740.000 637840.000 10.40
165740.000 637836.000 10.50
165740.000 637832.000 10.70
165736.000 637832.000 10.30
165736.000 637828.000 10.50
165736.000 637824.000 10.60
165736.000 637820.000 10.70
165732.000 637820.000 10.40
165732.000 637816.000 10.50
165732.000 637812.000 10.60
165732.000 637808.000 10.80
165728.000 637808.000 10.40
165728.000 637804.000 10.50
165728.000 637800.000 10.70
165724.000 637800.000 10.30
165724.000 637796.000 10.50
165724.000 637792.000 10.60
165724.000 637788.000 10.70
165720.000 637788.000 10.40
165720.000 637784.000 10.50
165720.000 637780.000 10.60
165720.000 637776.000 10.80
165716.000 637776.000 10.40
165716.000 637772.000 10.50
165712.000 637768.000 10.30
165716.000 637768.000 10.70
165712.000 637764.000 10.50
165712.000 637760.000 10.60
165712.000 637756.000 10.70
165708.000 637752.000 10.50
165708.000 637756.000 10.40
165708.000 637748.000 10.60
165708.000 637744.000 10.80
165704.000 637744.000 10.40
165704.000 637740.000 10.60
165704.000 637736.000 10.70
165700.000 637736.000 10.30
165700.000 637732.000 10.50
165700.000 637728.000 10.60
165700.000 637724.000 10.70
165696.000 637712.000 10.80
165692.000 637708.000 10.60
165696.000 637724.000 10.40
165696.000 637720.000 10.50
165696.000 637716.000 10.60
165692.000 637712.000 10.40
167060.000 639012.000 10.70
167060.000 639008.000 10.60
167060.000 639004.000 10.40
167056.000 638988.000 10.60
167056.000 638992.000 10.80
167056.000 638984.000 10.50
167056.000 638980.000 10.30
167052.000 638968.000 10.70
167052.000 638964.000 10.50
167052.000 638960.000 10.40
167048.000 638948.000 10.70
167048.000 638944.000 10.60
167048.000 638936.000 10.30
167048.000 638940.000 10.40
167044.000 638928.000 10.80
167044.000 638924.000 10.60
167044.000 638916.000 10.40
167044.000 638920.000 10.50
167040.000 638904.000 10.70
167040.000 638900.000 10.60
167040.000 638896.000 10.40
167036.000 638884.000 10.80
167036.000 638880.000 10.60
167036.000 638876.000 10.50
167036.000 638872.000 10.30
167032.000 638864.000 10.80
167032.000 638860.000 10.70
167032.000 638856.000 10.50
167032.000 638852.000 10.40
167028.000 638840.000 10.70
167028.000 638836.000 10.60
167028.000 638832.000 10.40
167024.000 638820.000 10.80
167024.000 638816.000 10.60
167024.000 638812.000 10.50
167024.000 638808.000 10.30
167020.000 638796.000 10.70
167020.000 638792.000 10.50
167020.000 638788.000 10.40
167016.000 638776.000 10.70
167016.000 638772.000 10.60
167016.000 638768.000 10.40
167016.000 638764.000 10.30
167012.000 638756.000 10.80
167012.000 638752.000 10.60
167012.000 638748.000 10.50
167012.000 638744.000 10.40
167008.000 638732.000 10.70
167008.000 638728.000 10.60
167008.000 638724.000 10.40
167004.000 638712.000 10.80
167004.000 638708.000 10.60
167004.000 638704.000 10.50
167004.000 638700.000 10.30
167000.000 638692.000 10.80
167000.000 638688.000 10.70
167000.000 638684.000 10.50
167000.000 638680.000 10.40
166996.000 638668.000 10.70
166996.000 638664.000 10.60
166996.000 638660.000 10.40
166992.000 638648.000 10.80
166992.000 638644.000 10.60
166988.000 638644.000 10.70
166980.000 638644.000 10.70
166984.000 638644.000 10.70
166976.000 638644.000 10.70
166972.000 638644.000 10.70
166944.000 638644.000 10.70
166956.000 638644.000 10.70
166964.000 638644.000 10.70
166968.000 638644.000 10.70
166960.000 638644.000 10.70
166952.000 638644.000 10.70
166948.000 638644.000 10.70
166940.000 638644.000 10.70
166932.000 638644.000 10.70
166936.000 638644.000 10.70
166928.000 638644.000 10.70
166920.000 638644.000 10.70
166924.000 638644.000 10.70
166916.000 638644.000 10.70
166912.000 638644.000 10.70
166908.000 638644.000 10.70
166880.000 638644.000 10.70
166892.000 638644.000 10.70
166900.000 638644.000 10.70
166904.000 638644.000 10.70
166896.000 638644.000 10.70
166888.000 638644.000 10.70
166884.000 638644.000 10.70
166876.000 638644.000 10.70
166864.000 638644.000 10.70
166872.000 638644.000 10.70
166868.000 638644.000 10.70
166856.000 638644.000 10.70
166860.000 638644.000 10.70
166852.000 638644.000 10.70
166848.000 638644.000 10.70
166820.000 638644.000 10.70
166832.000 638644.000 10.70
166840.000 638644.000 10.70
166844.000 638644.000 10.70
166836.000 638644.000 10.70
166828.000 638644.000 10.70
166824.000 638644.000 10.70
166816.000 638644.000 10.70
166804.000 638644.000 10.70
166812.000 638644.000 10.70
166808.000 638644.000 10.70
166796.000 638644.000 10.70
166800.000 638644.000 10.70
166792.000 638644.000 10.70
166788.000 638640.000 9.90
166772.000 638640.000 9.90
166752.000 638640.000 9.90
166732.000 638640.000 9.90
166712.000 638640.000 9.90
166692.000 638640.000 9.90
166672.000 638640.000 9.90
166652.000 638640.000 9.90
166632.000 638640.000 9.90
166612.000 638640.000 9.90
166760.000 638640.000 9.90
166776.000 638640.000 9.90
166784.000 638640.000 9.90
166780.000 638640.000 9.90
166768.000 638640.000 9.90
166764.000 638640.000 9.90
166724.000 638640.000 9.90
166740.000 638640.000 9.90
166748.000 638640.000 9.90
166756.000 638640.000 9.90
166744.000 638640.000 9.90
166736.000 638640.000 9.90
166728.000 638640.000 9.90
166716.000 638640.000 9.90
166720.000 638640.000 9.90
166664.000 638640.000 9.90
166700.000 638640.000 9.90
166708.000 638640.000 9.90
166704.000 638640.000 9.90
166696.000 638640.000 9.90
166680.000 638640.000 9.90
166688.000 638640.000 9.90
166684.000 638640.000 9.90
166676.000 638640.000 9.90
166668.000 638640.000 9.90
166644.000 638640.000 9.90
166660.000 638640.000 9.90
166656.000 638640.000 9.90
166648.000 638640.000 9.90
166640.000 638640.000 9.90
166636.000 638640.000 9.90
166624.000 638640.000 9.90
166628.000 638640.000 9.90
166620.000 638640.000 9.90
166616.000 638640.000 9.90
166604.000 638640.000 9.90
166608.000 638640.000 9.90
166600.000 638640.000 9.90
166592.000 638640.000 9.90
166596.000 638640.000 9.90
166584.000 638640.000 9.90
166588.000 638640.000 9.90
166580.000 638640.000 9.90
166576.000 638640.000 9.90
166572.000 638640.000 9.90
166568.000 638640.000 9.90
166564.000 638640.000 9.90
166552.000 638640.000 9.90
166560.000 638640.000 9.90
166556.000 638640.000 9.90
166548.000 638640.000 9.90
166532.000 638640.000 9.90
166544.000 638640.000 9.90
166536.000 638640.000 9.90
166540.000 638640.000 9.90
166528.000 638640.000 9.90
166524.000 638640.000 9.90
166520.000 638640.000 9.90
166516.000 638640.000 9.90
166468.000 638640.000 10.20
166472.000 638616.000 10.30
166476.000 638600.000 10.20
166476.000 638596.000 10.20
166480.000 638588.000 10.00
166480.000 638584.000 10.00
166480.000 638580.000 10.10
166484.000 638572.000 9.90
166480.000 638576.000 10.20
166480.000 638572.000 10.20
166484.000 638568.000 9.90
166484.000 638564.000 10.00
166484.000 638556.000 10.10
166484.000 638560.000 10.10
166484.000 638552.000 9.90
166480.000 638552.000 10.20
166480.000 638548.000 10.00
166476.000 638544.000 10.10
166472.000 638540.000 10.10
166468.000 638536.000 10.20
166468.000 638532.000 10.00
166464.000 638528.000 10.10
166460.000 638524.000 10.20
166460.000 638520.000 9.90
166456.000 638516.000 10.00
166456.000 638520.000 10.30
166456.000 638512.000 9.80
166452.000 638512.000 10.10
166452.000 638508.000 9.90
166448.000 638508.000 10.20
166444.000 638504.000 10.30
166448.000 638504.000 10.00
166444.000 638500.000 10.10
166444.000 638496.000 9.80
166440.000 638496.000 10.10
166440.000 638492.000 9.90
166436.000 638492.000 10.20
166436.000 638488.000 10.00
166432.000 638480.000 9.80
166432.000 638484.000 10.10
166428.000 638480.000 10.20
166424.000 638476.000 10.30
166424.000 638472.000 10.00
165848.000 638140.000 10.00
165848.000 638144.000 9.80
165848.000 638132.000 10.30
165848.000 638136.000 10.10
165844.000 638132.000 9.90
165844.000 638128.000 10.00
165844.000 638124.000 10.20
165840.000 638124.000 9.80
165840.000 638112.000 10.20
165840.000 638120.000 9.90
165840.000 638116.000 10.10
165768.000 637920.000 10.20
165764.000 637916.000 10.00
165764.000 637912.000 10.10
165764.000 637908.000 10.30
165760.000 637908.000 9.90
165760.000 637904.000 10.00
165760.000 637900.000 10.20
165756.000 637888.000 10.20
165756.000 637892.000 10.10
165752.000 637880.000 10.10
165748.000 637868.000 10.20
165744.000 637860.000 10.10
165752.000 637876.000 10.30
165776.000 637952.000 9.80
165776.000 637948.000 10.00
165776.000 637944.000 10.10
165776.000 637940.000 10.30
165772.000 637940.000 9.90
165772.000 637936.000 10.00
165772.000 637932.000 10.20
165768.000 637932.000 9.80
165768.000 637928.000 9.90
165768.000 637924.000 10.10
165764.000 637920.000 9.80
165744.000 637856.000 10.20
165788.000 637984.000 9.80
165788.000 637980.000 10.00
165788.000 637976.000 10.10
165788.000 637972.000 10.30
165784.000 637972.000 9.90
165784.000 637968.000 10.00
165784.000 637964.000 10.20
165780.000 637964.000 9.80
165780.000 637960.000 9.90
165780.000 637956.000 10.10
165780.000 637952.000 10.20
165796.000 638000.000 10.00
165796.000 637996.000 10.20
165792.000 637992.000 9.90
165792.000 637988.000 10.10
165792.000 637984.000 10.20
165800.000 638008.000 10.10
165800.000 638004.000 10.30
165740.000 637848.000 10.10
165740.000 637844.000 10.30
165736.000 637840.000 10.00
165736.000 637836.000 10.20
165732.000 637828.000 10.10
165732.000 637824.000 10.20
165728.000 637820.000 10.00
165728.000 637816.000 10.10
165728.000 637812.000 10.30
165724.000 637808.000 10.00
165724.000 637804.000 10.20
165720.000 637800.000 9.90
165720.000 637796.000 10.10
165720.000 637792.000 10.20
165716.000 637788.000 10.00
165716.000 637784.000 10.10
165716.000 637780.000 10.30
165712.000 637780.000 9.90
165712.000 637776.000 10.00
165712.000 637772.000 10.20
165708.000 637768.000 9.90
165708.000 637764.000 10.10
165708.000 637760.000 10.20
165704.000 637760.000 9.80
165704.000 637756.000 10.00
165704.000 637752.000 10.10
165704.000 637748.000 10.30
165700.000 637748.000 9.90
165700.000 637744.000 10.00
165700.000 637740.000 10.20
165696.000 637732.000 10.10
165696.000 637728.000 10.20
165692.000 637716.000 10.30
167064.000 639016.000 10.10
167064.000 639012.000 9.90
167064.000 639008.000 9.80
167060.000 639000.000 10.30
167060.000 638996.000 10.10
167060.000 638992.000 10.00
167060.000 638988.000 9.80
167056.000 638976.000 10.20
167056.000 638972.000 10.00
167056.000 638968.000 9.90
167052.000 638956.000 10.20
167052.000 638952.000 10.10
167052.000 638948.000 10.00
167052.000 638944.000 9.80
167048.000 638932.000 10.10
167048.000 638928.000 10.00
167048.000 638924.000 9.90
167044.000 638912.000 10.20
167044.000 638908.000 10.10
167044.000 638900.000 9.80
167044.000 638904.000 9.90
167040.000 638892.000 10.30
167040.000 638888.000 10.10
167040.000 638884.000 10.00
167040.000 638880.000 9.80
167036.000 638868.000 10.20
167036.000 638864.000 10.00
167036.000 638860.000 9.90
167032.000 638848.000 10.20
167032.000 638844.000 10.10
167032.000 638840.000 9.90
167032.000 638836.000 9.80
167028.000 638828.000 10.30
167028.000 638824.000 10.10
167028.000 638820.000 10.00
167028.000 638816.000 9.80
167024.000 638804.000 10.20
167024.000 638800.000 10.00
167024.000 638796.000 9.90
167020.000 638784.000 10.20
167020.000 638780.000 10.10
167020.000 638776.000 10.00
167020.000 638772.000 9.80
167016.000 638760.000 10.20
167016.000 638756.000 10.00
167016.000 638752.000 9.90
167012.000 638740.000 10.20
167012.000 638736.000 10.10
167012.000 638732.000 9.90
167008.000 638720.000 10.30
167008.000 638716.000 10.10
167008.000 638712.000 10.00
167008.000 638708.000 9.80
167004.000 638696.000 10.20
167004.000 638692.000 10.00
167004.000 638688.000 9.90
167000.000 638676.000 10.20
167000.000 638672.000 10.10
167000.000 638668.000 9.90
167000.000 638664.000 9.80
166996.000 638656.000 10.30
166996.000 638652.000 10.10
166996.000 638648.000 10.00
166996.000 638644.000 9.80
166992.000 638640.000 9.90
166972.000 638640.000 9.90
166952.000 638640.000 9.90
166932.000 638640.000 9.90
166912.000 638640.000 9.90
166892.000 638640.000 9.90
166872.000 638640.000 9.90
166852.000 638640.000 9.90
166832.000 638640.000 9.90
166812.000 638640.000 9.90
166792.000 638640.000 9.90
166876.000 638640.000 9.90
166960.000 638640.000 9.90
166988.000 638640.000 9.90
166980.000 638640.000 9.90
166984.000 638640.000 9.90
166976.000 638640.000 9.90
166964.000 638640.000 9.90
166968.000 638640.000 9.90
166928.000 638640.000 9.90
166944.000 638640.000 9.90
166948.000 638640.000 9.90
166956.000 638640.000 9.90
166936.000 638640.000 9.90
166940.000 638640.000 9.90
166908.000 638640.000 9.90
166916.000 638640.000 9.90
166924.000 638640.000 9.90
166920.000 638640.000 9.90
166900.000 638640.000 9.90
166904.000 638640.000 9.90
166896.000 638640.000 9.90
166884.000 638640.000 9.90
166888.000 638640.000 9.90
166880.000 638640.000 9.90
166796.000 638640.000 9.90
166840.000 638640.000 9.90
166856.000 638640.000 9.90
166864.000 638640.000 9.90
166868.000 638640.000 9.90
166860.000 638640.000 9.90
166848.000 638640.000 9.90
166844.000 638640.000 9.90
166804.000 638640.000 9.90
166820.000 638640.000 9.90
166828.000 638640.000 9.90
166836.000 638640.000 9.90
166824.000 638640.000 9.90
166816.000 638640.000 9.90
166808.000 638640.000 9.90
166800.000 638640.000 9.90
166460.000 638516.000 9.70
166452.000 638504.000 9.60
166448.000 638500.000 9.70
166444.000 638492.000 9.60
166440.000 638488.000 9.70
165844.000 638136.000 9.80
165844.000 638144.000 9.50
165844.000 638140.000 9.60
165840.000 638132.000 9.50
165840.000 638136.000 9.40
165836.000 638128.000 9.30
165840.000 638128.000 9.70
165836.000 638124.000 9.40
165836.000 638120.000 9.60
165836.000 638116.000 9.70
165772.000 637952.000 9.50
165772.000 637948.000 9.60
165772.000 637944.000 9.80
165768.000 637940.000 9.50
165768.000 637936.000 9.70
165764.000 637924.000 9.70
165784.000 637976.000 9.80
165780.000 637968.000 9.70
165776.000 637960.000 9.60
165776.000 637956.000 9.70
167068.000 639016.000 9.30
167064.000 639004.000 9.60
167064.000 639000.000 9.50
167064.000 638996.000 9.40
167060.000 638984.000 9.70
167060.000 638980.000 9.60
167060.000 638976.000 9.40
167060.000 638972.000 9.30
167056.000 638964.000 9.80
167056.000 638960.000 9.60
167056.000 638956.000 9.50
167056.000 638952.000 9.30
167052.000 638940.000 9.70
167052.000 638936.000 9.50
167052.000 638932.000 9.40
167048.000 638920.000 9.70
167048.000 638916.000 9.60
167048.000 638912.000 9.40
167048.000 638908.000 9.30
167044.000 638896.000 9.60
167044.000 638892.000 9.50
167044.000 638888.000 9.30
167040.000 638876.000 9.70
167040.000 638872.000 9.50
167040.000 638868.000 9.40
167040.000 638864.000 9.20
167036.000 638856.000 9.70
167036.000 638852.000 9.60
167036.000 638848.000 9.40
167036.000 638844.000 9.30
167032.000 638832.000 9.60
167032.000 638828.000 9.50
167032.000 638824.000 9.30
167028.000 638812.000 9.70
167028.000 638808.000 9.60
167028.000 638804.000 9.40
167028.000 638800.000 9.30
167024.000 638792.000 9.70
167024.000 638788.000 9.60
167024.000 638784.000 9.50
167024.000 638780.000 9.30
167020.000 638768.000 9.70
167020.000 638764.000 9.50
167020.000 638760.000 9.40
167016.000 638748.000 9.70
167016.000 638744.000 9.60
167016.000 638740.000 9.40
167016.000 638736.000 9.30
167012.000 638728.000 9.80
167012.000 638724.000 9.60
167012.000 638720.000 9.50
167012.000 638716.000 9.30
167008.000 638704.000 9.70
167008.000 638700.000 9.50
167008.000 638696.000 9.40
167004.000 638684.000 9.70
167004.000 638680.000 9.60
167004.000 638676.000 9.40
167004.000 638672.000 9.30
167000.000 638660.000 9.60
167000.000 638656.000 9.50
167000.000 638652.000 9.30
166996.000 638640.000 9.70
166788.000 638636.000 9.10
166768.000 638636.000 9.10
166784.000 638636.000 9.10
166776.000 638636.000 9.10
166780.000 638636.000 9.10
166772.000 638636.000 9.10
166764.000 638636.000 9.10
166748.000 638636.000 9.10
166756.000 638636.000 9.10
166760.000 638636.000 9.10
166752.000 638636.000 9.10
166716.000 638636.000 9.10
166732.000 638636.000 9.10
166740.000 638636.000 9.10
166744.000 638636.000 9.10
166736.000 638636.000 9.10
166724.000 638636.000 9.10
166728.000 638636.000 9.10
166720.000 638636.000 9.10
166708.000 638636.000 9.10
166712.000 638636.000 9.10
166704.000 638636.000 9.10
166696.000 638636.000 9.10
166700.000 638636.000 9.10
166688.000 638636.000 9.10
166692.000 638636.000 9.10
166668.000 638636.000 9.10
166680.000 638636.000 9.10
166684.000 638636.000 9.10
166672.000 638636.000 9.10
166676.000 638636.000 9.10
166660.000 638636.000 9.10
166664.000 638636.000 9.10
166656.000 638636.000 9.10
166648.000 638636.000 9.10
166652.000 638636.000 9.10
166640.000 638636.000 9.10
166644.000 638636.000 9.10
166620.000 638636.000 9.10
166632.000 638636.000 9.10
166636.000 638636.000 9.10
166624.000 638636.000 9.10
166628.000 638636.000 9.10
166596.000 638636.000 9.10
166608.000 638636.000 9.10
166612.000 638636.000 9.10
166616.000 638636.000 9.10
166600.000 638636.000 9.10
166604.000 638636.000 9.10
165840.000 638140.000 9.20
165840.000 638144.000 9.10
165836.000 638132.000 9.10
165836.000 638140.000 8.90
165836.000 638144.000 8.70
165836.000 638136.000 9.00
165832.000 638128.000 8.90
165832.000 638132.000 8.80
165832.000 638124.000 9.00
167068.000 639012.000 9.20
167068.000 639008.000 9.00
167068.000 639004.000 8.90
167068.000 639000.000 8.70
167064.000 638992.000 9.20
167064.000 638988.000 9.10
167064.000 638984.000 8.90
167064.000 638980.000 8.80
167060.000 638968.000 9.10
167060.000 638964.000 9.00
167060.000 638960.000 8.80
167056.000 638948.000 9.20
167056.000 638944.000 9.00
167056.000 638940.000 8.90
167056.000 638936.000 8.70
167052.000 638928.000 9.20
167052.000 638924.000 9.10
167052.000 638920.000 8.90
167052.000 638916.000 8.80
167048.000 638904.000 9.10
167048.000 638900.000 9.00
167048.000 638896.000 8.80
167044.000 638884.000 9.20
167044.000 638880.000 9.00
167044.000 638876.000 8.90
167044.000 638872.000 8.70
167040.000 638860.000 9.10
167040.000 638856.000 8.90
167040.000 638852.000 8.80
167036.000 638840.000 9.10
167036.000 638836.000 9.00
167036.000 638832.000 8.90
167032.000 638820.000 9.20
167032.000 638816.000 9.10
167032.000 638812.000 8.90
167032.000 638808.000 8.80
167028.000 638796.000 9.10
167028.000 638792.000 9.00
167028.000 638788.000 8.80
167024.000 638776.000 9.20
167024.000 638772.000 9.00
167024.000 638768.000 8.90
167024.000 638764.000 8.70
167020.000 638756.000 9.20
167020.000 638752.000 9.10
167020.000 638748.000 8.90
167020.000 638744.000 8.80
167016.000 638732.000 9.10
167016.000 638728.000 9.00
167016.000 638724.000 8.80
167012.000 638712.000 9.20
167012.000 638708.000 9.00
167012.000 638704.000 8.90
167012.000 638700.000 8.70
167008.000 638692.000 9.20
167008.000 638688.000 9.10
167008.000 638684.000 8.90
167008.000 638680.000 8.80
167004.000 638668.000 9.10
167004.000 638664.000 9.00
167004.000 638660.000 8.90
167000.000 638648.000 9.20
167000.000 638644.000 9.10
167000.000 638640.000 8.90
166996.000 638636.000 9.10
167000.000 638636.000 8.80
166968.000 638636.000 9.10
166980.000 638636.000 9.10
166984.000 638636.000 9.10
166992.000 638636.000 9.10
166988.000 638636.000 9.10
166972.000 638636.000 9.10
166976.000 638636.000 9.10
166964.000 638636.000 9.10
166932.000 638636.000 9.10
166948.000 638636.000 9.10
166956.000 638636.000 9.10
166960.000 638636.000 9.10
166952.000 638636.000 9.10
166940.000 638636.000 9.10
166944.000 638636.000 9.10
166936.000 638636.000 9.10
166916.000 638636.000 9.10
166928.000 638636.000 9.10
166920.000 638636.000 9.10
166924.000 638636.000 9.10
166880.000 638636.000 9.10
166884.000 638636.000 9.10
166900.000 638636.000 9.10
166908.000 638636.000 9.10
166912.000 638636.000 9.10
166904.000 638636.000 9.10
166892.000 638636.000 9.10
166896.000 638636.000 9.10
166888.000 638636.000 9.10
166848.000 638636.000 9.10
166864.000 638636.000 9.10
166872.000 638636.000 9.10
166876.000 638636.000 9.10
166868.000 638636.000 9.10
166856.000 638636.000 9.10
166860.000 638636.000 9.10
166852.000 638636.000 9.10
166844.000 638636.000 9.10
166824.000 638636.000 9.10
166836.000 638636.000 9.10
166840.000 638636.000 9.10
166832.000 638636.000 9.10
166828.000 638636.000 9.10
166800.000 638636.000 9.10
166812.000 638636.000 9.10
166820.000 638636.000 9.10
166816.000 638636.000 9.10
166804.000 638636.000 9.10
166808.000 638636.000 9.10
166792.000 638636.000 9.10
166796.000 638636.000 9.10
166788.000 638632.000 8.30
166780.000 638632.000 8.30
166760.000 638632.000 8.30
166784.000 638632.000 8.30
166764.000 638632.000 8.30
166776.000 638632.000 8.30
166756.000 638632.000 8.30
166768.000 638632.000 8.30
166772.000 638632.000 8.30
166752.000 638632.000 8.30
166748.000 638632.000 8.30
166740.000 638632.000 8.30
166720.000 638632.000 8.30
166744.000 638632.000 8.30
166736.000 638632.000 8.30
166724.000 638632.000 8.30
166732.000 638632.000 8.30
166728.000 638632.000 8.30
166716.000 638632.000 8.30
166704.000 638632.000 8.30
166712.000 638632.000 8.30
166708.000 638632.000 8.30
166700.000 638632.000 8.30
166696.000 638632.000 8.30
166692.000 638632.000 8.30
166680.000 638632.000 8.30
166684.000 638632.000 8.30
